-1.107795 -1.008259 -0.7650158 -0.9485134 -1.0603 -9999 -0.82 -0.54 -1.087333 -0.7 -0.6275 -0.825 -0.705 -0.6125 -0.9725 -0.0975 -0.8775 -0.5175 -0.705 -0.555 -0.6525 -0.665 -0.8375 -0.6675 -1 -0.6825 -0.7575 -0.645 -0.73 -0.4875 -0.69 -0.655 -0.5175 -0.8125 -0.9425 -0.4625 -0.515 -0.8925 -0.1675 -1.0025 -0.8525 -0.375 -1.055 -0.585 -0.62 -0.9025 -0.7875 -0.9125 -0.6725 -0.7 -0.96 -0.6375 -0.645 -0.5225 -0.4375 -0.94 -0.7575 -0.5175 -0.5925 -0.6775 -9999 -9999 -9999 -9999 -9999 -9999 -9999 -9999 -9999 -9999 -9999 -9999 -9999 -9999 -9999 -9999 -1.2525 -1.255 -1.2575 -1.3275
-1.139618 -1.114119 -0.9650719 -0.6824468 -0.9344515 -0.995 -0.97577 -0.3725 -1.173667 -0.965 -0.6525 -0.57 -0.725 -0.6075 -0.8225 -1.005 -0.34 -0.55 -0.65 -0.805 -0.715 -0.7425 -0.6075 -0.8725 -0.7025 -0.7325 -0.8175 -0.56 -0.65 -0.48 -0.685 -0.5075 -0.8575 -0.56 -0.9 -0.8325 -0.6475 -0.7225 -0.93 -0.2075 -0.93 -0.92 -0.3075 -0.95 -0.695 -0.7475 -0.745 -0.5925 -0.825 -0.6 -0.385 -0.515 -0.665 -0.705 -0.5825 -0.475 -0.8325 -0.7675 -0.61 -0.6525 -9999 -9999 -9999 -9999 -9999 -9999 -9999 -9999 -9999 -9999 -9999 -9999 -9999 -9999 -9999 -1.266667 -1.2175 -1.243333 -9999 -1.295
-0.9293366 -0.8593271 -0.6907216 -0.8682591 -0.8725335 -0.9850882 -0.4875 -1.138563 -0.3375 -0.555 -0.6175 -0.935 -0.615 -0.7425 -0.48 -0.34 -0.9775 -0.685 -0.73 -0.65 -0.5825 -0.5075 -0.765 -0.725 -0.6075 -0.755 -0.67 -0.8175 -0.8225 -0.2575 -0.79 -0.9875 -0.89 -0.5075 -0.4875 -0.635 -1.0175 -0.525 -0.88 -0.9 -0.3625 -0.7125 -0.8375 -0.8475 -0.9125 -0.7725 -0.8225 -0.66 -0.7225 -0.705 -0.665 -0.725 -0.435 -0.77 -0.965 -0.66 -0.5825 -0.8075 -1.225 -0.875 -9999 -9999 -9999 -9999 -9999 -9999 -9999 -9999 -9999 -9999 -9999 -9999 -9999 -9999 -9999 -1.28 -1.2975 -9999 -1.25 -9999
-0.8815984 -0.8058681 -0.9217121 -0.8001398 -1.080561 -1.076043 -0.72 -0.6025 -0.9175 -0.5777602 -0.745 -0.64 -0.8 -0.46 -0.6175 -0.5975 -0.6275 -0.6975 -0.485 -0.5925 -0.6375 -0.4575 -0.51 -0.6625 -0.66 -0.645 -0.93 -0.495 -0.64 -0.6475 -0.7775 -0.2525 -0.715 -0.8925 -0.5325 -0.6075 -0.625 -0.71 -0.5125 -0.6175 -1.07 -0.6525 -0.4675 -0.9075 -0.355 -0.805 -0.8 -0.86 -0.545 -0.6425 -0.895 -0.725 -0.67 -0.7475 -0.57 -0.725 -1.015 -0.37 -0.3775 -0.815 -9999 -9999 -9999 -9999 -9999 -9999 -9999 -9999 -9999 -9999 -9999 -9999 -9999 -9999 -9999 -9999 -1.2675 -9999 -9999 -9999
-0.5788717 -0.66 -0.5949446 -0.9227276 -1.069742 -0.625 -0.9351714 -0.7325 -0.7028607 -0.89 -0.69 -0.4375 -0.8125 -0.9575 -0.59 -0.84 -0.7175 -0.55 -0.665 -0.4825 -0.6175 -0.7575 -0.99 -0.3375 -0.82 -0.9675 -0.8275 -0.6125 -0.79 -0.465 -0.5925 -0.89 -0.505 -0.585 -0.915 -0.755 -0.885 -0.6925 -0.965 -0.78 -0.2275 -0.7075 -0.7475 -0.4625 -0.725 -0.8475 -0.5675 -0.9525 -1.07 -0.77 -0.5775 -0.465 -0.77 -0.7025 -0.835 -0.5725 -0.74 -0.5175 -0.805 -0.505 -9999 -9999 -9999 -9999 -9999 -9999 -9999 -9999 -9999 -9999 -9999 -9999 -9999 -9999 -9999 -9999 -9999 -9999 -9999 -9999
-0.8414509 -0.5625 -0.6625 -0.6307288 -0.980036 -0.9013269 -0.7675768 -0.9125 -0.645 -0.475 -0.7575 -0.8325 -0.6475 -0.4475 -0.955 -0.575 -0.8625 -0.6825 -0.4575 -0.98 -0.675 -0.455 -0.645 -0.7825 -0.81 -0.6375 -0.675 -0.675 -0.685 -0.515 -0.69 -0.615 -0.915 -0.7675 -0.58 -0.585 -0.715 -0.7325 -0.3725 -1.085 -0.645 -0.63 -0.4 -0.9675 -0.4525 -0.93 -0.5375 -0.8625 -0.695 -0.8525 -0.965 -0.75 -0.72 -0.7325 -0.85 -0.525 -0.535 -0.6025 -0.7475 -0.8025 -9999 -9999 -9999 -9999 -9999 -9999 -9999 -9999 -9999 -9999 -9999 -9999 -9999 -9999 -9999 -9999 -9999 -9999 -9999 -9999
-0.7366499 -0.638891 -0.5075 -0.5325 -0.53 -0.4325 -0.89 -0.6675 -0.705 -0.705 -0.7825 -0.5475 -0.605 -0.955 -0.3875 -1.0225 -0.5675 -0.7525 -0.8775 -0.5675 -0.5475 -1.0375 -0.5675 -0.7975 -0.7675 -0.405 -0.66 -0.26 -0.8625 -0.8675 -0.73 -0.3925 -0.51 -0.6775 -0.67 -0.71 -0.7625 -0.825 -0.6775 -0.635 -0.6175 -0.765 -0.2025 0.8375 -0.725 -0.315 -0.8925 -0.7225 -0.805 -0.5375 -0.5625 -0.9 -0.72 -0.54 -0.8675 -0.5075 -0.965 -0.79 -0.5975 -0.28 -9999 -9999 -9999 -9999 -9999 -9999 -9999 -9999 -9999 -9999 -9999 -9999 -9999 -9999 -9999 -9999 -9999 -9999 -9999 -9999
-1 -0.9462722 -0.62 -0.5925 -0.6225 -0.77 -0.85 -0.765 -0.63 -0.835 -0.385 -1.1425 -0.3025 -0.605 -0.9625 -0.33 -0.9825 -0.5225 -0.79 -0.845 -0.63 -0.41 -0.6975 -0.68 -0.6 -1.03 -0.3425 -0.9725 -0.5525 -0.4575 -0.8325 -0.8775 -0.8875 -0.7125 -0.5725 -0.6975 -0.355 -0.775 -0.795 -0.78 -0.9625 -0.4725 0.455 0.2325 -0.6425 -0.855 -0.765 -0.7125 -0.7675 -0.705 -0.6575 -0.5525 -0.785 -0.835 -0.6175 -0.765 -0.82 -0.585 -0.8025 -0.93 -0.23 -9999 -9999 -9999 -9999 -9999 -9999 -9999 -9999 -9999 -9999 -9999 -9999 -9999 -9999 -9999 -9999 -9999 -9999 -9999
-0.9241279 -1.007929 -0.905 -0.345 -0.8325 -0.59 -0.4525 -0.83 -0.4775 -0.9975 -0.725 -0.385 -0.97 -0.5925 -0.605 -0.8025 -0.7575 -0.7425 -0.6725 -0.665 -0.675 -0.5575 -0.8275 -0.77 -0.44 -0.6375 -0.6875 -0.6225 -1.03 -0.8425 -0.5625 -0.815 -0.7875 -0.48 -0.6675 -0.55 -0.86 -0.7525 -0.595 -0.6725 -0.4825 0.6625 -0.72 -0.595 -0.905 -0.47 -0.9525 -0.65 -0.5325 -0.83 -0.7475 -0.96 -0.76 -0.55 -0.8425 -0.7675 -0.7075 -0.6925 -0.835 -0.595 -0.81 -9999 -9999 -9999 -9999 -9999 -9999 -9999 -9999 -9999 -9999 -9999 -9999 -9999 -9999 -9999 -9999 -9999 -9999 -9999
-1.082972 -0.5259067 -0.8825 -0.8175 -0.5225 -0.74 -0.7625 -0.685 -0.575 -0.5125 -0.66 -1.0925 -0.2325 -0.945 -1.0125 -0.3225 -0.8 -0.7425 -0.715 -0.69 -0.6875 -0.63 -0.8275 -0.26 -0.975 -0.9 -0.2875 -0.8225 -0.6025 -0.8725 -0.7375 -0.9475 -0.4875 -1.005 -0.605 -0.765 -0.6575 -0.5125 -0.8225 -0.75 -0.67 0.595 -0.255 -0.57 -0.805 -1.075 -0.4525 -0.53 -0.725 -0.685 -0.615 -0.285 -0.93 -0.725 -0.42 -0.9625 -0.8625 -0.945 -0.635 -0.8525 -0.74 -9999 -9999 -9999 -9999 -9999 -9999 -9999 -9999 -9999 -9999 -9999 -9999 -9999 -9999 -9999 -9999 -9999 -9999 -9999
-0.8952081 -1.02286 -0.515 -0.7425 -0.9225 -0.8875 -0.465 -0.72 -0.725 -1.105 -0.0775 -0.805 -0.8225 -0.3425 -0.755 -0.62 -0.865 -0.48 -0.505 -0.7025 -1.05 -0.865 -0.555 -0.5125 -0.765 -0.6 -1.1175 -0.325 -0.93 -0.66 -0.3775 -0.7225 -0.6625 -0.5625 -0.8675 -0.58 -0.64 -0.7575 -0.7825 -0.7575 -0.735 -0.7375 -0.67 -0.85 -0.425 -0.885 -0.995 -0.83 -0.3 -0.87 -0.8575 -0.675 -0.615 -0.47 -0.725 -0.71 -0.78 -0.7375 -0.8925 -0.4475 -0.65 -9999 -9999 -9999 -9999 -9999 -9999 -9999 -9999 -9999 -9999 -9999 -9999 -9999 -9999 -0.7166667 -9999 -9999 -9999 -9999
-0.7120188 -0.5975 -0.9175 -0.665 -0.595 -0.975 -0.6125 -0.595 -0.6225 -0.5575 -1.135 -0.32 -1.0375 -0.815 -0.615 -0.5525 -0.7625 -0.68 -0.4225 -0.79 -0.895 -0.4475 -0.8375 -0.615 -0.82 -0.3725 -0.51 -0.5975 -0.955 -0.6575 -0.68 -0.44 -0.9 -0.7025 -0.655 -0.7825 -0.525 -0.765 -0.74 -0.6875 -0.7475 -0.7425 -0.635 -0.5375 -0.9575 -0.6125 -0.72 -0.855 -0.7025 -0.6075 -0.5175 -0.7925 -0.4375 -0.905 -0.66 -0.8275 -0.605 -0.58 -0.5975 -0.685 -0.95 -0.725 -9999 -9999 -9999 -9999 -9999 -9999 -9999 -9999 -9999 -9999 -9999 -9999 -9999 -0.3175 -9999 -9999 -9999 -9999
-0.965 -0.5075 -0.5075 -0.89 -0.7325 -0.8025 -0.885 -0.43 -0.8025 -0.715 -0.265 -1.1825 0.8125 -0.4775 -0.6425 4.8775 8.0125 1.155 -0.9625 -0.2825 0.7775 -0.8675 -0.8 -0.8875 -0.63 -0.91 -0.6625 -0.7725 -0.5325 -0.22 -0.7975 -0.9425 -0.6175 -0.65 -0.84 -0.6075 -0.58 -0.74 -0.8375 -0.715 -0.68 -0.7225 -0.8 -0.875 -0.505 -0.875 -0.6925 -0.5375 -0.5375 -0.785 -0.8 -0.8575 -0.5625 -0.515 -0.7825 -0.9375 -0.4225 -0.8575 -0.905 -0.6275 -0.5425 -9999 -9999 -9999 -9999 -9999 -9999 -9999 -9999 -9999 -9999 -9999 -9999 -9999 -9999 -9999 -9999 -9999 -9999 -9999
-0.2925 -1.0825 -0.7875 -0.46 -0.6525 -0.7875 -0.63 -0.9675 -0.485 -0.69 -0.8075 0.3475 0.92 -0.6775 5.8625 12.1 14.835 13.2375 12.8 11.3225 2.71 1.94 -0.5875 -0.8375 -0.9975 -0.7175 -0.7375 -0.595 -0.81 -0.68 -0.8375 -0.06999999 0.6975 -0.6925 -0.6075 -0.715 -0.75 -0.7675 -0.77 -0.78 1.5975 0.1875 1.915 -0.36 0.03750001 -0.5425 -0.875 -0.9625 -0.62 -0.3525 -0.68 -0.895 -0.75 -0.6025 -0.7525 -0.46 -0.8775 -0.3975 -0.79 -0.5975 -0.7575 -0.43 -9999 -9999 -9999 -9999 -9999 -9999 -9999 -9999 -9999 -0.595 -9999 -9999 -9999 -0.5675 -9999 -9999 -9999 -9999
-0.7 -0.74 -0.3225 -0.8275 -0.84 -0.6775 -0.6925 -0.5075 -0.815 -0.5975 -0.6075 2.9275 10.21 9.715 14.87 17.81 20.5725 20.77 20.0175 14.8175 4.565 -0.6925 2.075 2.025 -0.4925 -0.7625 -0.835 -0.78 -0.8375 1.0925 1.5025 0.765 -0.02000001 -0.6425 -0.6775 -0.6775 -0.73 -0.6325 -0.6275 -0.71 12.0425 5.2425 10.32 4.065 2.16 0.5775 -0.215 -0.1775 -0.8725 -0.8025 -0.7575 -0.3275 -0.8325 -0.6825 -0.6575 -1.0175 -0.5675 -0.8575 -0.74 -0.7325 -0.7525 -0.8425 -9999 -9999 -9999 -9999 -9999 -0.705 -9999 -9999 -9999 -9999 -9999 -9999 -0.6966667 -9999 -0.8675 -0.5325 -9999 -0.6433333
-0.785 -0.9075 -0.745 -0.6225 -0.55 -0.85 -0.7675 -0.5975 -0.6225 -0.8375 -0.76 3.8375 12.685 14.25 16.6325 19.7075 23.4125 23.3475 23.9325 1.2725 3.5775 0.18 -0.6325 -0.605 -0.415 -0.515 -0.6075 -0.77 -0.7375 2.2375 4.355 8.2125 18.6575 18.6525 3.2 -0.2025 -0.2675 -0.27 0.1625 0.7075 17.6175 17.2725 16.4975 5.085 7.2375 10.175 4.82 -0.985 -0.4 -0.49 -0.77 -0.7425 -0.305 -0.655 -0.7575 -0.45 -0.9525 -0.38 -0.685 -0.625 -0.5575 -0.5475 -9999 -9999 -9999 -9999 -9999 -9999 -9999 -0.76 -9999 -0.29 -9999 -9999 -9999 -9999 -9999 -9999 -0.9333333 -0.6975
-0.74 -0.65 -0.6475 -0.745 -0.85 -0.4725 -0.6825 -0.7125 -0.7575 -0.685 -0.71 2.8775 7.705 11.6125 14.5425 17.49 21.17 22.88 20.41 8.1625 18.465 20.48 19.815 11.46 -0.6825 -0.62 1.1625 10.035 20.5275 22.1275 23.13 23.7025 24.275 25.08 24.4 17.9025 20.72 21.1475 21.8375 21.615 20.67 20.7725 18.6575 17.4675 14.9775 4.255 -0.6525 -0.0125 1.4175 2.1625 -0.7575 -0.8575 -0.75 -0.7275 -0.71 -0.675 -0.7075 -0.7075 -0.8525 -0.675 -0.9275 -0.81 -9999 -9999 -0.5925 -9999 -9999 -9999 -9999 -0.555 -9999 -9999 -0.6575 -0.5325 -9999 -0.4466667 -0.8725 -0.8675 -0.5975 -0.595
-0.6025 -0.6075 -1.0725 -0.48 -0.7125 -0.7525 -0.89 -0.5875 -0.665 -0.6975 -0.7325 -0.715 -0.7225 -0.535 0.4225 2.5 12.9475 19.0725 20.485 22.165 22.25 21.7625 21.37 19.1175 -0.62 20.455 23.535 23.7175 25.58 26.9025 29.6625 30.005 29.11 28.0875 26.7225 25.7175 25.1125 24.3125 23.83 23.53 22.7375 21.76 20.6475 18.99 -0.83 -0.5675 15.01 14.6325 15.6825 7.7975 3.3525 -0.955 -0.6175 -0.81 -0.7075 -0.46 -0.66 -0.8725 -0.5875 -1 -0.755 -0.72 -0.32 -0.3833333 -9999 -9999 -9999 -9999 -0.595 -0.635 -0.74 -0.5375 -9999 -0.7066667 -9999 -9999 -0.68 -0.59 -9999 -9999
-0.6775 -0.86 -0.1625 -0.795 -0.8575 -0.54 -0.6525 -0.8325 -0.7775 -0.8375 -0.7475 -0.695 -0.7375 -0.7675 -0.595 -0.0275 0.89 2.325 19.3625 22.8075 23.525 23.8925 23.685 23.805 24.7325 26.645 27.825 29.36 30.3425 31.2475 33.2 32.955 31.9025 30.205 29.0575 28.165 27.43 26.7075 26.135 26.2775 24.255 23.435 22.49 21.21 20.3225 19.93 18.9425 19.7125 18.3825 14.535 9.7775 2.305 -0.8225 -0.5875 -0.7925 -0.8875 -0.88 -0.5025 -0.875 -0.3875 -0.65 -0.9825 -9999 -9999 -9999 -9999 -9999 -0.5425 -9999 -9999 -9999 -0.56 -0.41 -9999 -9999 -0.6733333 -9999 -9999 -0.8275 -0.7425
-0.4075 -0.7225 -1.0225 -0.5175 -0.7925 -0.9375 -0.7375 -0.6075 -0.5675 -0.615 -0.725 -0.7575 -0.6875 -0.7725 -0.63 -0.675 0.11 1.6525 20.87 23.2875 25.75 26.5175 26.8075 27.635 30.0025 30.8825 31.29 32.705 34.4775 35.0975 35.29 35.44 34.465 32.19 30.985 29.8375 28.975 28.1925 27.61 27.68 25.47 24.3625 23.6025 22.885 21.645 21.6975 22.65 22.0375 18.67 15.8775 13.2375 1.5375 -0.5925 -1.01 -0.5575 -0.6725 -0.7325 -0.7 -0.8 -0.65 -0.6275 -0.5275 -0.645 -0.61 -9999 -9999 -9999 -9999 -0.8175 -0.335 -0.495 -0.7325 -0.7175 -9999 -9999 -0.7325 -0.3166667 -9999 -0.62 -0.55
-1.0475 -0.975 -0.505 -0.57 -0.9025 -0.825 -0.4175 -0.69 -0.595 -0.6475 -0.7475 -0.8175 -0.7325 -0.73 -0.695 -0.715 -0.4675 16.0125 20.4775 26.24 28.665 29.745 30.9075 32.4575 33.485 33.9275 34.785 36.3375 38.5175 39.115 37.7125 37.865 34.9825 33.7 32.3075 31.0975 30.1975 29.43 28.7925 28.7425 26.97 25.6475 24.575 24.505 25.65 24.1925 23.9675 22.2925 19.45 17.0175 15.1425 4.6425 1.555 -0.49 -0.6175 -0.9175 -0.66 -0.6575 -0.62 -0.6125 -0.1275 -0.88 -0.6825 -0.5775 -9999 -9999 -0.6125 -0.5325 -0.5 -0.6 -9999 -0.8175 -0.6675 -0.5225 -9999 -9999 -9999 -1.0025 -0.7525 -0.85
-0.865 -0.295 -0.85 -0.935 -0.625 -0.64 -0.7925 -0.8475 -0.8025 -0.7075 -0.715 -0.71 -0.745 -0.75 -0.75 -0.725 2.1375 16.03 22.725 27.7625 31.695 32.98 34.0725 34.885 35.595 36.3025 37.3575 38.975 40.805 39.34 38.5975 37.58 35.7 34.515 33.2575 32.2725 31.2725 30.535 29.8525 29.53 28.0175 26.8 25.6275 25.7275 25.97 25.44 24.4275 22.59 20.3425 18.2475 16.21 15.175 -0.4375 -0.7 -0.77 -0.445 -0.84 -0.82 -0.6075 -0.745 -0.855 -0.6255159 -0.6875 -0.4625 -9999 -9999 -0.38 -0.6 -0.885 -0.695 -9999 11.44333 7.321157 -0.295 -0.87 -0.7125 -0.695 -0.635 -0.54 -0.8476222
-0.77 -0.9325 -0.8325 -0.515 -0.7475 -0.7875 -0.7175 -0.85 -0.8125 -0.805 -0.7325 -0.6375 -0.725 -0.74 -0.625 -0.695 1.5025 15.3575 23.005 29.84 34.425 34.71 36.0025 36.7825 37.58 38.2275 39.0975 39.8775 40.005 39.3025 38.8225 37.6525 36.27 35.2575 34.045 33.3825 32.55 31.83 31.1775 30.5275 29.2025 28.1625 27.385 27.0825 26.765 26.1475 24.7275 22.7925 21.005 19.6425 17.8725 16.57 -0.6975 -0.8275 -0.28 -0.84 -0.67 -0.5475 -0.735 -0.835 -0.68 -0.8475 -0.56 -9999 -0.515 -9999 -0.7675 -0.7825 -0.5775 5.5575 25.1585 29.21179 30.46218 3.563237 0.4922258 -0.9060202 0.8883926 1.453667 -1.165667 1.747002
-0.635 -0.59 -0.6825 -0.885 -0.865 -0.66 -0.5375 -0.5725 -0.6025 -0.72 -0.7925 -0.655 -0.7325 -0.6799999 -0.6375 -0.68 10.0525 15.2475 21.8975 29.97 36.355 36.6075 37.5875 38.18 38.885 39.4325 40.09 40.6425 40.6175 40.015 39.565 38.5275 37.1675 36.255 35.2875 34.77 34.125 33.385 32.675 31.785 30.8025 29.5 28.7775 28.27 27.4125 26.61 25.1275 23.3275 21.7375 20.535 19.29 17.4175 -0.655 -0.4475 -0.5075 -0.6425 -0.6125 -0.61 -0.7225 -0.5225 -0.645 -0.7475 -1.0525 -9999 -0.815 -0.4725 -0.6825 0.86 10.75093 23.27917 30.90041 34.24438 36.29938 7.465 -0.6691667 10.6 11.25 28.48983 28.7995 19.44648
-0.6975 -0.665 -0.8325 -0.6375 -0.665 -0.5925 -0.5675 -0.5625 -0.6125 -0.6475 -0.76 -0.63 -0.7125 -0.7125 -0.72 -0.72 -0.365 1.0225 21.495 29.2725 38.25 37.8175 38.8425 39.3775 40.0225 40.6275 41.4025 41.5725 41.3025 40.655 40.415 40.4175 40.6275 39.0825 37.1275 36.2125 35.6025 34.8825 34.255 33.465 32.6775 30.8025 29.7825 28.935 27.84 26.75 25.3875 23.7675 22.3875 21.2075 20.175 18.2975 0.1125 -0.66 -0.85 -0.545 -0.76 -0.7025 -0.6425 -0.7975 1.3075 -0.1775 -0.81 -0.6475 -0.5425 -9999 -0.0855 17.14736 24.65636 30.6305 37.65591 40.1575 39.8325 39.4171 12.75562 36.63398 41.30315 41.42256 41.68813 41.53458
-0.6375 -0.7375 -0.7375 -0.6625 -0.625 -0.675 -0.605 -0.7175 -0.6275 -0.6325 -0.74 -0.5875 -0.6825 -0.8125 -0.76 -0.6975 0.6475 19.955 25.6725 31.255 38.435 40.3625 40.5975 40.5575 40.82 41.1825 41.71 41.7975 41.6975 41.235 41.4075 42.4875 42.1875 40.19 38.125 37.4825 36.71 36.035 35.6375 34.76 33.725 31.8625 30.2975 29.3525 28.1125 26.88 25.5225 24.0525 22.7275 21.7 20.8725 19.6075 -0.0425 -0.4475 0.05 -0.6225 -0.7225 -0.7225 -0.61 -0.6475 3.465 -0.6475 -0.6375 -0.77 -0.605 -0.6025 10.12542 26.1455 31.71033 38.565 42.7375 42.935 43.9575 41.2575 21.9744 41.7128 41.4813 41.94341 42.3493 42.685
-0.64 -0.7675 -0.7025 -0.7325 -0.6925 -0.7425 -0.78 -0.76 -0.7375 -0.65 -0.7125 -0.695 -0.66 -0.6625 -0.7525 0.3075 10.5925 23.0725 30.82 37.3475 40.38 40.925 41.1775 41.0875 41.1375 41.3575 41.7975 41.935 42.04 42.0525 43.1475 44.54 43.32 40.835 38.8425 38.1175 37.485 36.96 36.6875 35.8775 34.265 32.2625 30.45 29.68 28.5425 27.26 25.835 24.45 23.14 22.24 21.445 19.045 1.1225 0.2625 -0.3075 -0.5825 -0.6275 -0.72 -0.5025 0.2875 2.73 -0.7349052 -0.9660786 -0.6075 -0.66 5.679123 24.88958 30.7375 37.055 42.3525 45.865 46.73 45.2525 43.2 39.72 43.0375 43.14 43.775 44.2675 44.5625
-0.8125 -0.825 -0.7475 -0.82 -0.83 -0.835 -0.81 -0.755 -0.68 -0.7125 -0.7425 -0.7075 -0.72 -0.7075 -0.3975 11.49 20.9025 28.21 33.935 39.8825 40.7825 41.5475 41.5975 41.3875 41.45 41.705 42.0775 42.285 42.62 43.2375 44.7025 46.71 43.9975 41.2975 39.6 38.84 38.22 37.6925 37.3925 36.5575 34.4475 32.7125 31.05 30.165 29.1125 27.77 26.275 24.975 23.67 22.85 21.715 17.4225 2.6225 1.53 0.96 0.665 0.285 -0.04 0.41 0.2225 0.3875 -0.2826874 -0.5376508 -0.7540448 -0.9325 7.063333 28.14717 35.1375 40.4475 44.8525 48.255 49.5275 47.705 45.36 45.34 44.6775 45.055 45.705 46.1925 46.335
-0.885 -0.8975 -0.9225 -0.9825 -0.7925 -0.74 -0.8025 -0.6725 -0.6575 -0.665 -0.68 -0.775 -0.6825 -0.665 0.1925 16.67 25.2475 32.6125 37.195 39.51 41.0175 41.76 41.8025 41.705 41.83 42.0525 42.58 42.8425 43.3475 44.42 46.5475 47.605 44.5275 41.8625 40.305 39.57 38.8475 38.295 37.8875 36.2225 34.6725 32.9175 31.845 30.98 29.8475 28.5975 27.105 25.8475 24.555 23.735 20.08 13.7625 6.2375 10.7275 17.135 3.14 2.7425 16.2425 21.13 8.8225 1.5775 1.0325 0.5907742 0.1109506 0.9146667 18.07784 33.93917 39.4325 43.7375 47.22 50.635 51.035 49.015 47.145 46.9525 46.99 47.175 47.7725 48.3825 48.2425
-0.7975 -0.6375 -0.665 -0.6825 -0.7575 -0.7 -0.7825 -0.6275 -0.655 -0.6875 -0.765 -0.5825 -0.73 -0.715 1.26 19.025 28.6275 34.165 37.01 39.215 40.705 41.445 41.705 41.82 42.05 42.32 42.695 43.12 43.7225 44.7425 45.5725 46.2825 44.62 41.9775 40.8175 40.125 39.1125 38.515 37.91 36.2525 34.59 33.3475 32.575 31.845 30.63 29.3575 28.0425 26.79 25.475 23.4275 17.94 13.0275 10.93 12.1025 17.9675 25.1125 25.535 25.8175 17.8675 8.0825 2.955 2.66 1.905 2.742595 17.11967 29.55412 36.9875 41.705 46.4725 48.865 51.8575 52.795 50.38 48.8075 48.5975 48.785 50.1525 50.9025 50.535 49.95
-0.66 -0.7425 -0.82 -0.7725 -0.8575 -0.845 -0.7675 -0.635 -0.615 -0.7625 -0.7675 -0.63 -0.6375 -0.84 9.98 21.36 28.0125 34.5825 38.195 39.0375 40.615 41.375 41.76 41.87 42.2 42.4675 42.83 43.1875 43.775 44.945 45.4575 45.3675 44.015 42.065 41.155 40.3775 39.385 38.6675 38.005 36.4475 34.765 33.925 33.2075 32.65 31.4825 30.155 28.975 27.7825 26.4725 22.85 17.14 14.7725 14.1675 14.6725 18.3825 27.57 26.605 26.4125 21.195 20.6075 7.6925 8.1075 3.5175 6.64 26.3925 35.1925 40.2325 43.7 48.6325 50.495 53.1325 54.125 50.68 50.2925 50.225 50.5125 52.1875 53.3375 53.9175 53.66
-0.855 -0.815 -0.9075 -0.825 -0.99 -0.86 -0.745 -0.8175 -0.6575 -0.6975 -0.725 -0.73 -0.7525 -0.63 12.9125 24.1175 30.0175 33.3425 37.945 39.4 40.895 41.6375 41.9975 42.13 42.375 42.65 42.965 43.26 43.6875 44.765 45.16 44.88 43.8275 42.1075 41.1975 40.5 39.5975 38.73 37.965 36.885 35.1775 34.35 33.7425 33.3275 32.56 31.21 30.0075 28.8275 27.7175 23.825 19.2775 16.305 16.5925 17.965 17.4 25.6725 27.385 27.825 27.9575 17.72 12.925 23.0025 17.3825 21.7725 31.685 37.0475 41.8775 47.01 50.74 52.0175 54.215 54.3275 51.695 51.51 51.55 52.1475 54.755 56.945 56.1025 56.2375
-0.6775 -0.755 -0.6875 -0.7575 -0.7125 -0.685 -0.73 -0.78 -0.7575 -0.745 -0.6225 -0.7975 -0.6975 -0.645 14.3875 23.65 29.6225 34.8025 40.255 40.955 41.145 41.72 42.0925 42.2 42.46 42.7525 43.0875 43.37 44.94 44.445 44.58 44.3175 43.305 41.995 41.25 40.5825 39.7525 38.8775 38.0575 37.2625 35.8 34.99 34.44 34.045 33.51 32.3025 31.0675 30.0525 29.1825 27.9075 21.37 18.1125 18.755 19.3025 21.9625 28.75 29.0475 29.3775 29.575 19.34 21.045 26.4725 25.8525 31.82 35.33 39.565 43.625 47.3775 51.885 54.0425 55.4325 52.905 52.54 52.6 52.9625 54.5075 57.735 59.8925 58.7 58.375
-0.7725 -0.64 -0.5875 -0.5275 -0.5925 -0.525 -0.5575 -0.54 -0.7075 -0.7425 -0.51 -0.6625 -0.7375 -0.7125 6.755 21.225 29.3575 35.645 39.465 40.9225 42.0625 42.7525 42.7825 42.335 42.795 43.56 42.965 43.4 44.5225 44.275 44.2775 43.955 43.1375 42.18 41.385 40.7275 39.945 39.12 39.2675 37.635 36.53 35.665 35.09 34.5875 34.1675 33.195 32.0975 31.175 30.525 27.76 21.2 19.76 20.3325 20.5975 26.2275 30.24 30.4925 30.8275 31.1375 30.9575 30.81 28.2325 32.8975 34.8775 37.3175 41.2375 44.7475 48.37 53.4175 54.625 53.93 53.5025 53.36 53.4575 53.8525 55.95 60.035 62.4575 60.2875 60.67
-0.605 -0.685 -0.4775 -0.635 -0.695 -0.6 -0.7275 -0.6925 -0.625 -0.7575 -0.74 -0.67 -0.73 -0.635 14.9625 20.86 28.2725 33.92 41.6425 41.5125 41.8275 42.3975 42.96 42.89 42.6775 43.0375 43.3925 43.7325 43.89 43.855 43.9825 44.09 43.8075 43.2925 42.3 41.815 41.2475 40.515 40.185 38.5075 37.315 36.385 35.6175 34.9925 34.49 33.62 32.8925 32.1725 31.6225 30.6875 23.76 21.785 22.73 26.7925 31.1475 31.5125 31.7775 32.17 32.51 33.08 33.5775 34.27 35.1375 37.0075 39.51 43.255 46.5825 49.3575 52.0975 53.4125 53.885 53.8225 53.9425 54.175 54.65 57.32 61.9725 63.2025 61.84 62.4075
-0.535 -0.6925 -0.735 -0.7475 -0.58 -0.745 -0.6925 -0.725 -0.7 -0.7075 -0.7275 -0.8075 -0.6325 -0.7975 9.247499 21.375 27.93 34.1025 40.8525 41.2475 42.4225 42.6725 42.6825 42.81 42.965 43.1575 43.5175 43.6975 43.7375 43.7875 43.69 43.4325 42.9475 42.5525 42.8425 41.225 40.735 40.1775 39.5475 39.0175 38.395 37.505 36.8525 35.9875 35.2525 34.9375 33.9275 33.4425 33.375 32.075 27.1975 25.565 30.3975 33.6825 32.8025 32.74 32.9925 33.3875 33.96 34.35 35.2475 35.91 37.2975 39.5 42.1425 44.395 46.9275 49.03 51.75 53.0725 53.8475 53.9075 54.0725 54.3375 54.785 59.5075 62.725 64.425 62.675 63.43
-0.585 -0.65 -0.6175 -0.6075 -0.7525 -0.67 -0.7075 -0.64 -0.6825 -0.705 -0.68 -0.655 -0.675 -0.6575 -0.435 17.2675 29.555 35.06 40.605 43.245 42.9525 43.36 43.4775 43.3075 43.26 43.4075 43.73 43.755 43.7475 43.625 43.4925 43.2725 42.94 42.6275 42.4125 41.7475 41.3175 40.93 40.465 39.895 39.29 38.5525 37.825 36.96 36.215 36.49 35.1625 34.4525 33.735 33.5625 33.235 33.075 33.3225 33.68 33.84 34.1175 34.41 34.7075 36.1275 36.0175 37.335 38.3025 39.995 42.155 43.9725 45.6725 47.5375 49.195 51.3575 52.6925 53.715 53.995 54.285 54.5525 55.02 60.81 63.3675 64.2575 62.7475 63.8775
-0.5525 -0.4575 -0.565 -0.51 -0.64 -0.775 -0.7125 -0.73 -0.71 -0.6575 -0.6775 -0.6475 -0.77 -0.6775 -0.3 7.02 30.505 35.0875 38.955 42.6325 43.5475 44.04 44.1075 43.9675 43.77 43.5975 43.8725 43.76 43.7625 43.64 43.35 43.2075 43.0175 42.96 42.8875 42.3425 41.93 41.6375 41.2275 40.675 40.165 39.775 39.175 38.23 37.4075 37.3625 36.1725 35.6625 35.04 34.3325 34.2125 34.16 34.24 34.46 34.715 35.0675 35.4675 35.8375 36.92 37.44 39.18 40.7775 42.8 44.01 45.485 47.1325 48.1975 49.5575 51.19 52.355 53.6575 53.9375 54.29 54.6875 55.1925 58.5425 62.54 63.66 62.8075 64.275
-0.6325 -0.4425 -0.4625 -0.6625 -0.6525 -9999 -9999 -0.6725 -0.7625 -0.6875 -0.67 -0.66 -0.635 -0.645 0.69 3.425 30.1875 37.6275 39.7825 44.19 44.52 44.9625 44.92 44.6725 44.4025 44.38 44.1025 44.065 43.8575 43.7 43.5425 43.375 43.35 43.38 43.315 43.2175 42.7275 42.4175 42.17 42.0125 41.5575 41.365 40.945 39.97 38.775 38.6975 37.2525 36.3625 35.7425 35.2675 35.15 35.1125 35.185 35.285 35.52 35.9175 36.3575 36.865 37.605 38.975 41.4425 43.1275 44.465 45.415 46.84 47.94 48.9075 50.0875 51.355 52.245 53.6975 53.875 54.3425 54.875 55.465 56.3725 61.46 63.385 62.985 63.595
-0.7325 -0.6475 -9999 -0.7125 -0.67 -0.67 -0.7175 -0.595 -0.7075 -0.7975 -0.64 -0.72 -0.7375 -0.2925 1.155 14.0175 32.1575 36.8175 43.075 46.1225 46.175 46.365 45.735 45.375 44.765 44.505 44.24 44.35 44.11 44.01 43.8975 43.67 43.6275 43.67 43.7175 44.4725 43.84 43.7425 43.635 43.46 43.315 42.7025 42.2625 41.5125 40.235 40.11 38.735 37.8625 36.745 36.345 36.35 36.3475 36.405 36.4025 36.5325 36.82 37.285 37.7825 38.465 41.8725 43.9925 45.1775 46.1 47.0225 48.14 48.9075 49.8075 50.77 51.7575 52.555 53.81 54.2975 54.5125 55.1425 55.695 56.72 58.6875 63.1375 62.3825 63.565
-0.4725 -0.6625 -0.54 -0.6625 -0.6725 -0.6475 -0.5975 -0.475 -0.6675 -0.715 -0.7225 -0.6075 -0.632742 0.49 1.7225 22.585 34.415 36.3525 46.215 49.01 48.24 48.26 46.97 46.07 45.33 45.2 45.065 44.4425 44.4325 44.2625 44.15 44.0225 43.96 44.105 44.2975 44.925 45.5875 45.5675 45.4325 45.11 44.8975 44.7175 43.8425 42.6075 41.9975 42.465 41.63 41.51 40.6375 37.815 37.985 37.8825 37.7875 37.7925 37.8425 38.1225 38.575 39.2475 39.9575 44.05 45.8575 46.7125 47.56 48.2675 49.155 49.9825 50.8925 51.5975 52.34 53.1025 53.7025 54.005 54.6775 55.265 55.87 57.4 58.825 60.0125 62.615 62.3875
-0.62 -0.77 -0.72 -0.675 -0.6675 -0.7625 -0.635 -0.6425 -0.725 -0.68 -0.6575 -0.785 -0.575 6.5325 25.3925 31.6075 34.6025 42.3425 47.165 50.4325 50.0275 49.0675 48.23 47.6675 46.455 46.0225 45.835 45.225 44.8 44.5775 44.405 44.3075 44.29 44.415 45.0225 46.285 46.7225 46.9225 46.8975 46.5775 46.06 45.805 45.035 43.8975 43.1225 43.08 43.2575 43.275 42.4475 39.9425 39.2675 39.07 38.96 38.9175 39.02 39.34 39.9225 40.6775 43.24 45.2325 47.175 48.2125 49.0575 49.56 50.4325 50.9425 51.84 52.5375 53.1275 53.63 53.8675 54.1375 54.84 55.4625 56.125 58.25 59.0475 61.1675 60.415 60.4975
-0.6950001 -0.495 -0.6075 -0.6950001 -0.6125 -0.785 -0.69 -0.6225 -0.7375 -0.645 -0.6075 0.0325 19.6575 25.7825 32.3225 33.275 39.545 44.9975 50.255 52.1425 52.705 50.27 49.1425 48.8675 47.9675 47.14 46.5175 45.6525 45.5 44.82 44.7575 44.68 44.6725 44.835 46.13 47.5075 48.4475 48.3925 48.355 48.06 47.4825 46.9 46.225 45.3675 44.6625 44.3325 44.375 44.085 43.575 42.49 40.8875 40.5375 40.295 40.4225 40.47 40.5975 41.2925 41.9575 45.4475 47.1475 48.6825 49.1725 49.76 50.3025 51.03 51.775 52.655 53.2175 53.7625 53.9025 54.035 54.285 55.05 55.7075 56.5675 57.7225 60.1225 59.78 59.9275 59.765
-0.56 -0.6066667 -0.7025 -0.645 -0.79 -0.755 -0.645 -0.2563563 0.8575 -0.085 9.885 18.05 25.45 31.415 32.0025 36.07 43.925 48.4 52.1975 52.3075 51.41 50.6125 49.0375 49.1 48.7875 48.2425 47.265 46.295 45.4825 45.38 45.0375 44.965 44.9725 45.71 47.37 48.425 49.6125 49.64 49.8875 49.7825 49.7625 49.38 49.095 47.4725 45.9925 45.2325 45.1975 44.3225 43.75 42.8375 42.0525 41.5725 41.3025 41.4525 41.715 42.12 42.6875 45.475 46.83 48.455 49.63 50.1925 50.64 51.245 51.7625 52.4075 53.255 53.965 54.2375 54.1475 54.235 54.4175 55.18 55.9075 56.71 57.6525 59.1875 59.5275 59.5975 59.4825
-0.585 -0.485 -0.6875 -0.74 -0.84 -0.72 -0.9688683 5.200502 5.080258 5.19 8.827499 16.9225 26.915 30.5275 30.7 36.81 40.075 43.4525 46.1175 48.255 46.4025 50.3375 49.9425 51.0175 48.635 48.72 47.8925 46.7 45.655 45.4075 45.64 45.23 45.535 46.7 48.0625 49.2625 50.34 50.9625 51.4725 52.06 52.475 52.355 51.5525 49.4125 47.5175 46.2125 44.97 44.965 44.14 43.52 42.9425 42.5575 42.37 42.4575 42.7475 43.12 44.0625 47.05 48.3975 49.8775 50.6875 50.86 51.3625 51.8875 52.4125 52.975 53.6875 54.3675 54.4925 54.355 54.4125 54.61 55.245 55.95 56.745 57.6825 58.835 59.2925 59.4 59.3025
-0.455 -0.38 -0.7275 -0.695 -0.79 -0.5875 -0.79 0.6899001 2.185837 3.930214 4.245 14.145 23.635 27.4325 29.825 33.455 35.3175 38.1625 40.105 41.9475 43.58 44.695 45.985 48.405 48.48 47.7025 47.595 46.3225 45.4075 45.2125 46.13 45.6675 45.8575 47.115 48.365 49.525 50.7075 51.9425 53.23 55.9925 55.9425 55.3375 53.815 52.0975 49.375 48.705 46.37 45.7025 44.9275 44.195 43.755 43.4875 43.2825 43.4375 43.755 44.2175 45.0125 49.02 51.255 51.03 51.4025 51.4925 51.8425 52.275 52.7775 53.265 53.87 54.7775 54.5925 54.4575 54.485 54.7425 55.265 55.9175 56.7225 57.7525 58.8025 58.9725 59.14 59.1675
-0.705 -0.7625 -0.7425 -0.6325 -9999 -0.6325 -0.7875 -0.66 -0.705 -0.6325 3.93 11.43 17.3275 23.3675 27.685 28.2875 31.4825 37.095 36.355 36.93 41.44 45.85 44.93 45.8225 44.54 46.9275 46.51 45.5175 44.7625 44.5 44.5675 46.29 46.2675 47.12 48.35 49.4625 51.3225 52.9125 54.855 58.32 60.4375 57.7425 56.785 54.3625 51.2 50.26 47.075 46.535 46.4775 45.13 44.6525 44.385 44.1525 44.4125 44.8025 45.295 48.195 50.5175 56.2375 52.2375 52.0125 51.8775 52.115 52.5075 53.085 53.545 53.8625 54.545 54.7225 54.5675 54.6025 54.825 55.1825 55.8725 56.6175 58.155 58.2775 58.58 58.7925 58.8775
-0.62 -0.7 -0.72 -0.685 -0.68 -0.6875 -0.58 -0.9815 -0.7075 -0.2894463 -0.16 3.835 7.72 18.3275 23.075 25.2725 26.9175 33.0375 31.3375 36.325 33.7975 38.53 42.715 42.0125 44.565 44.51 44.7325 43.9125 43.5 43.5875 43.9975 46.0275 46.8025 47.5525 48.505 49.62 52.0475 53.565 54.5425 56.64 58.885 57.9825 56.4325 54.825 51.1075 49.015 48.0225 47.085 46.4575 46.2075 45.615 45.3225 45.2025 45.45 45.8875 46.565 48.665 51.3375 52.09 51.905 52.0275 52.125 52.4275 52.8375 53.3925 53.765 53.9325 54.2625 54.76 54.74 54.77 54.9675 55.2275 55.8425 56.535 58.295 57.86 58.2425 58.52 58.6675
-9999 -0.72 -0.65 -0.8157058 -0.7375 -0.6975 -0.5675 -0.75 -0.585 -0.71 -0.725 -0.67 3.9475 11.2825 17.39 20.745 24.9875 24.5425 24.685 31.3225 33.45 32.5625 36.71 36.8925 40.9325 39.9675 41.4225 40.7175 41.84 38.93 40.7 46.845 48.805 47.365 48.79 50.0775 51.595 52.725 54.5175 56.7475 58.02 57.33 55.755 53.8225 55.22 54.4475 48.505 48.0825 51.5375 47.615 46.6375 46.4 46.3675 46.765 47.305 48.0825 49.49 50.6975 52.155 51.9725 52.255 52.505 52.9675 53.315 53.8375 54.1125 54.1675 54.2875 54.585 54.63 54.6775 54.8725 55.2 55.6375 56.1975 56.7575 57.4875 58.8125 58.87 58.4425
-0.5525 -0.66 -0.68 -0.74 -0.785 -0.7775 -0.6725 -0.5875 -0.555 -0.7125 -0.7125 -0.6975 -0.405 4.0275 8.97 14.1975 16.58 19.955 21.325 22.8175 22.46 31.6075 31.115 33.4875 39.915 38.89 41.5975 37.795 37.34 42.015 41.3925 45.8325 47.4975 47.7175 48.9175 50.1875 51.835 52.655 54.25 56.34 57.7175 56.9875 55.575 53.8975 51.86 54.7575 52.735 48.0575 52.5575 51.9925 47.3725 47.59 47.9325 48.4025 49.0425 49.755 50.6775 51.4075 52.4925 52.195 52.5425 52.8175 53.27 53.6625 54.1625 54.2775 55.15 54.5625 54.895 54.785 54.89 55.0325 55.3325 55.6975 56.12 56.555 57.0475 57.4275 57.87 58.15
-0.515 -0.53 -0.6275 -0.7475 -0.705 -0.68 -0.75 -0.69 -0.7025 -0.72 -0.7425 -0.6325 -0.66 -0.6325 3.995 4.71 7.34 12.615 13.41 17.37 18.6375 20.9775 23.2275 28.6725 32.655 34.8325 34.015 36.82 37.24 39.4225 40.33 42.645 46.6575 49.825 48.2825 50.2375 51.9375 52.805 54.035 55.8475 57.235 56.6425 55.285 53.695 51.72 52.895 56.0275 48.3425 51.8975 52.4325 48.5925 48.7925 49.17 50.3325 51.09 51.12 52.665 53.575 53.035 53.3825 53.7425 53.935 54.1125 54.205 54.365 54.415 54.5225 54.5875 55.51 55.8875 54.8 54.6125 54.985 55.4925 55.93 56.4075 56.8425 57.2575 57.635 58.0975
-0.5875 -0.6525 -0.595 -0.7475 -0.72 -0.6825 -0.685 -0.6825 -0.6775 -0.715 -0.6325 -0.68 -0.63 -0.6875 -0.7775 2.365 4.255 8.2225 4.3925 8.82 11.5175 14.8675 17.975 18.9025 25.305 26.8275 29.26 30.935 34.1025 38.5675 39.58 41.2025 44.785 48.385 48.93 50.9725 51.96 52.9425 54.2025 55.38 56.0875 56.1375 54.91 53.6725 53.18 50.055 49.315 54.33 54.1575 52.865 48.86 50.33 50.3775 50.6875 51.1025 51.5475 52.8375 53.8575 55.1375 55.505 54.5375 54.0025 54.1175 54.5225 54.1175 54.1125 54.225 54.275 54.3225 54.335 54.375 54.4725 54.8025 55.31 55.7675 56.29 56.7775 57.1075 57.4475 58.0325
-0.665 -0.705 -0.7 -0.7825 -0.7575 -0.67 -0.69 -0.6825 -0.6875 -0.6575 -0.6775 -0.6825 -0.7425 -0.63 -0.6725 -0.3625 -0.47 2.605 4.0425 4.795 5.23 7.26 10.105 14.7875 17.2 22.84 24.255 28.455 32.7575 36.3725 37.4775 40.415 44.525 46.68 49.8775 49.3275 51.26 53.2075 54.635 55.35 54.9875 54.26 57.41 50.4675 50.0125 49.46 55.4075 48.365 48.7125 48.89 48.9925 50.38 49.975 50.6825 51.635 52.8925 54.135 54.77 55.1075 55.27 54.91 54.5425 54.3525 54.26 54.1525 54.1275 54.14 54.055 54.1275 54.24 54.3025 54.4175 54.82 55.37 55.85 56.3825 56.875 57.1325 57.5475 58.355
-0.66 -0.725 -0.69 -0.715 -0.73 -0.695 -0.595 -0.685 -0.6675 -0.705 -0.7475 -0.72 -0.73 -0.54 -0.47 -0.605 -0.5525 -0.28 -0.105 3.245 4.17 8.1275 6.0475 11.345 14.795 15.9175 22.155 27.19 32.0075 36.61 38.89 40.5175 44.0225 46.1075 47.965 50.675 49.8425 53.3025 54.2375 54.5475 54.025 52.9925 58.4675 50.215 49.815 50.1725 48.5925 48.5425 49.4375 47.9175 48.3 48.7825 49.7675 50.365 51.1475 52.3425 53.8575 54.8925 55.5625 55.695 55.3975 55.03 54.7025 54.495 54.2525 54.0725 54.0175 53.8925 53.945 54.075 54.21 54.4225 54.88 55.4025 55.8475 56.41 56.9025 57.265 57.6975 58.245
-0.61 -0.5975 -0.655 -0.7225 -0.65 -0.665 -0.6575 -0.6525 -0.6625 -0.665 -0.615 -0.6275 -0.7125 -0.5975 -0.4175 -0.4175 -0.3925 -0.4975 -0.3575 -0.1025 3.225 3.62 7.5975 7.895 14.7925 15.1675 20.2075 22.94 27.84 33.835 37.93 40.3725 42.8525 45.0875 47.1325 48.77 50.7725 50.34 55.3175 53.15 52.5175 51.3575 52.21 49.1475 48.8625 48.615 48.1775 47.425 47.515 47.67 47.985 48.4675 49.485 50.16 50.9275 52.0475 53.6225 54.84 55.765 55.9125 55.685 55.43 54.91 54.5825 54.29 54.0225 53.8975 53.815 53.805 53.95 54.1575 54.4175 54.8525 55.355 55.8675 56.46 56.9775 57.305 57.65 58.01
-0.1525 -0.6475 -0.64 -0.7475 -0.745 -0.605 -0.66 -0.7175 -0.6975 -0.7075 -0.6825 -0.44 -0.6625 -0.6125 -0.505 -0.38 -0.245 -0.125 -0.135 -0.2425 0.07 0.8775 3.11 8.67 8.639999 13.435 14.815 20.9175 28.7025 32.4025 32.5325 35.2825 41.45 44.3275 46.08 47.4775 49.0175 51.0125 50.4375 49.94 49.74 49.7175 49.6075 49.565 48.7175 48.345 47.11 47.025 47.11 47.3675 47.7225 48.2225 49.15 49.9375 50.76 51.98 53.74 55.1125 56.1 56.165 56.035 55.8375 55.285 54.745 54.2975 53.94 53.7875 53.6625 53.6525 53.75 53.9775 54.4175 54.8525 55.3875 55.9175 56.63 57.135 57.5075 57.7675 58.0375
1.015 -0.6725 -0.65 -0.6775 -0.7125 -0.7225 -0.705 -0.6925 -0.6975 -0.6475 -0.57 -0.66 -0.58 -0.42 -0.3325 -0.3775 -0.185 -0.0825 0.14 0.1925 0.255 0.315 0.29 3.32 4.5525 10.63 14.24 19.0675 22.3925 25.765 27.735 31.8075 38.015 42.2175 45.055 46.465 47.8175 48.7875 49.735 50.875 49.745 48.8325 54.71 48.15 47.065 46.96 46.77 46.6675 46.81 46.99 47.365 47.83 48.7125 49.665 50.7675 52.29 54.4325 55.9 56.5975 56.5475 56.4 56.1925 55.6725 54.8 54.2125 53.8425 53.6125 53.3725 53.415 53.5325 53.8225 54.2225 54.895 55.4675 56.02 56.875 57.45 57.755 57.915 58.09
1.085 -0.3775 -0.7075 -0.6725 -0.675 -0.73 -0.66 -0.6525 -0.55 -0.5375 -0.4875 -0.475 -0.62 -0.5275 -0.4175 -0.11 -0.1625 -0.0325 0.0925 0.2825 0.215 0.3375 0.4725 2.835 4.485 9.299999 14.4025 17.5425 18.65 25.165 24.385 24.9225 34.1125 40.9225 44.12 45.81 47.0475 47.9025 48.24 47.7275 49.4375 47.7725 47.6925 46.805 46.9 46.8625 46.7975 46.64 46.68 46.915 47.1225 47.49 48.3975 49.595 50.89 52.7475 55.0875 56.595 57.025 56.8675 56.705 56.46 55.985 54.8625 54.18 53.805 53.525 53.2425 53.265 53.365 53.6725 54.1475 54.9225 55.61 56.14 56.98 57.6325 57.845 57.985 58.1175
1.78 0.0075 -0.6175 -0.6875 -0.555 -0.5675 -0.615 -0.6075 -0.5125 -0.4325 -0.345 -0.2575 -0.285 -0.3975 -0.575 -0.5325 -0.3975 -0.17 0.0125 0.1525 0.4725 0.495 0.7125 0.69 10.3025 8.07 12.795 16.3325 16.605 19.1375 22.0175 27.73 32.525 41.1125 43.7625 45.1075 46.0525 46.2025 48.5325 57.2475 50.1725 46.4 47.3925 46.89 47.125 47.175 47.0725 46.9125 46.9 46.845 46.97 47.29 48.3775 49.7125 51.175 53.1575 55.54 57.055 57.245 57.0975 56.855 56.45 55.9 54.6975 53.945 53.5 53.175 52.94 53.0425 53.22 53.565 54.1375 54.975 55.7325 56.3275 57.035 57.6275 57.98 58.1125 58.26
1.29 0.375 -0.44 -0.5 -0.4475 -0.4275 -0.455 -0.4275 -0.46 -0.4325 -0.2925 -0.195 -0.185 -0.1475 -0.1 -0.2525 -0.0775 -0.2925 0.015 0.2425 0.3575 0.4125 0.6625 0.6875 10.0025 7.3825 11.925 18.845 14.215 17.3375 20.8925 25.53 32.135 38.35 43.735 46.03 44.275 44.2575 46.8525 56.3075 50.4525 49.1225 47.995 47.77 47.8025 47.695 47.515 47.355 47.185 47.15 47.0975 47.315 48.71 49.9075 51.4625 53.545 56.0675 57.345 57.36 57.235 56.915 56.2575 55.48 54.3125 53.6225 53.2225 52.97 52.835 52.92 53.2275 53.6225 54.25 55.1 55.8825 56.4775 57.0175 57.59 58.0525 58.2125 58.3325
5.32 0.2425 -0.09 -0.1925 -0.1925 -0.215 -0.245 -0.2475 -0.305 -0.26 -0.1525 -0.0625 0.035 0.0975 0.125 0.1425 0.03 0.2975 0.165 0.4025 0.69 0.5075 0.54 1.0075 9.8175 5.2275 8.6325 10.405 14.23 16.635 23.3875 29.9475 34.6925 40.45 38.9325 50.23 49.775 45.3525 46.905 52.585 48.6375 49.78 49.8575 50.845 49.215 48.7075 48.505 48.2425 47.9625 47.7925 47.7125 48.125 49.3075 50.4 51.9275 54.02 56.64 57.225 57.345 57.1125 56.6375 55.82 54.755 53.54 53.105 52.97 52.7875 52.7 52.8725 53.27 53.82 54.4075 55.1675 55.88 56.4975 57.0725 57.6225 58.1225 58.275 58.4
1.1975 0.355 0.145 0.065 0.0425 -0.0625 -0.0775 -0.1775 -0.2325 -0.1025 -0.0325 0.0275 0.14 0.1875 0.33 0.3175 0.2325 0.3125 0.395 0.43 0.68 0.7875 0.505 3.615 3.63 3.55 7.885 12.96 14.14 22.8075 29.6325 34.395 37.7375 38.3075 41.93 43.4475 55.25 44.4325 44.93 56.715 50.7875 51.01 50.96 50.67 51.8 50.5175 49.4825 49.225 48.9475 48.585 48.4575 48.925 49.7225 50.77 52.3 54.405 56.67 56.85 56.9875 56.7975 56.1675 55.2625 53.92 52.9925 52.7675 52.735 52.6525 52.655 52.9225 53.3575 53.8525 54.475 55.31 55.935 56.635 57.3075 57.895 58.235 58.3675 58.39
1.685 0.9525 0.565 0.285 0.225 0.1475 0.075 -0.0225 -0.11 -0.0775 0.04 0.0475 0.1625 0.245 0.3525 0.455 0.525 0.54 0.595 0.5525 0.84 0.7625 2.4325 3.1825 3.3075 4.95 6.97 8.975 22.335 26.17 30.065 34.9675 38.605 40.6025 41.62 46.5225 48.735 50.0675 50.1425 51.095 51.835 52.1075 52.0925 51.75 51.3875 52.715 51.56 50.4225 49.4925 49.1625 49.1475 49.58 50.2075 51.2725 52.8125 54.215 55.395 55.6725 55.84 56.005 55.5125 54.5475 53.3275 52.72 52.58 52.595 52.5 52.7225 53.0575 53.515 53.9575 54.4825 55.4625 56 56.7575 57.535 58.015 58.25 58.3075 58.325
2.6575 1.985 2.7875 3.2725 2.7625 1.1 0.3475 0.14 -0.0025 0.035 0.04 0.075 0.15 0.29 0.44 0.5775 0.82 1.1825 1.4175 2.255 0.7325 0.6225 2.51 5.3725 3.105 3.4075 5.8525 9.8325 17.0375 24.4675 29.815 36.05 40.08 42.9425 44.635 48.2675 48.6075 49.995 51.22 52.0975 52.9675 53.2375 53.035 52.855 52.6 52.3275 52.3475 51.2675 51.485 49.785 49.5 50.0625 51.5275 52.1525 53.8175 54.7725 53.84 53.9375 54.11 54.2575 53.965 53.265 52.685 52.5725 52.435 52.3225 52.405 52.6125 53.075 53.54 54.0175 54.4175 55.3675 56.0675 56.89 57.6725 58.11 58.2725 58.28 58.36
3.23 9.4025 10.78 11.2125 12.005 9.577499 5.335 3.255 0.35 0.22 0.1425 0.145 0.23 0.32 0.5675 1.1625 2.115 2.685 2.4475 2.23 1.465 0.635 2.445 3.485 9.29 3.835 6.285 9.34 16.3 21.315 32.5725 35.475 43.07 44.4 46.11 47.66 49.53 50.8875 52.02 52.9875 53.805 54.08 53.945 53.7575 53.67 53.4875 53.1075 52.1675 51.305 50.845 50.6 50.61 50.7625 51.115 51.6075 52.075 52.1175 52.3375 53.2975 52.4275 52.0775 51.8675 51.76 51.8175 51.8175 51.745 52.09 52.455 53.055 53.6525 54.1125 54.6025 55.5025 56.3075 57.16 57.835 58.215 58.375 58.35 58.355
13.235 18.1025 17.9625 20.4725 20.22 15.93 15.005 9.684999 3.7375 1.235 0.5975 0.6625 0.7925 0.88 1.2125 2.425 3.3925 3.33 3.4725 4.19 1.8625 0.7125 2.4675 3.1975 5.995 3.13 3.6025 7.57 14.4 19.9125 25.6725 34.6125 40.215 46.03 46.0025 47.815 49.68 51.0475 52.165 53.055 53.9575 54.165 54.255 54.3975 54.32 54.22 53.67 52.715 51.71 51.1425 50.7875 50.7075 50.6375 50.72 50.98 51.2375 51.395 51.485 51.5275 51.385 52.78 51.855 52.125 51.175 51.315 51.53 51.8875 52.375 53.055 53.7025 54.2925 54.8275 55.645 56.535 57.37 57.885 58.055 58.155 58.19 58.085
19.58 25.8775 26.5575 27.53 25.9925 24.33 22.3825 19.015 10.5425 7.385 3.6625 3.06 3.4025 3.6875 3.7125 3.7175 4.6575 4.07 3.53 4.01 2.0275 0.6425 2.495 3.125 3.31 4.8 3.4075 9.24 15.6975 25.495 27.9325 35.1125 40.905 43.3925 45.1775 47.155 49.1675 50.6625 51.9575 52.9525 53.69 54.185 54.475 54.705 54.8825 54.8725 54.21 53.3 52.275 51.6 51.1325 50.825 50.555 50.46 50.43 50.485 50.585 50.6725 50.695 50.68 50.475 50.0775 49.9775 49.8875 51.99 52.9175 51.7375 53.65 53.0875 53.7175 54.4025 55.1425 56.13 56.8425 57.4625 57.815 57.9425 58.0575 58.0425 58.005
28.8375 38.28 33.565 33.5775 32.0575 30.7025 30.02 22.405 25.7425 14.7 10.88 13.8075 9.6725 10.7775 12.445 7.07 4.345 5.7775 3.705 5.285 0.745 1.355 2.525 2.6825 3.915 6.0725 3.3 8.85 22.7175 26.7175 32.3475 35.7275 40.545 43.7125 43.8475 45.77 47.9875 49.7825 51.48 52.7725 53.6 54.1475 54.655 55.0025 55.3525 55.4275 54.7225 53.7725 52.635 51.9075 51.4075 50.93 50.47 50.2375 49.9625 49.8775 49.825 49.715 49.5875 49.44 49.15 48.7775 48.6175 48.71 49.47 50.28 50.9975 51.5925 54.34 53.665 54.2175 54.9375 56.055 56.8775 57.435 57.7325 57.8425 57.8375 57.8625 57.9025
36.2225 36.97 39.7675 42.285 38.605 34.93 28.665 27.015 25.1 22.275 20.325 19.3675 17.8125 16.265 14.6375 13.415 11.515 12.2125 5.7075 3.52 1.005 2.4375 2.51 2.6025 5.0375 4.7325 3.1075 6.73 19.1775 27.45 31.765 38.0375 39.4475 40.1475 42.855 43.8525 46.3225 48.61 50.775 52.26 53.4575 54.2575 55.0625 55.585 55.885 55.765 55.12 53.95 52.8525 52.13 51.505 51.02 50.3725 49.9625 49.4975 49.1925 48.7825 48.4375 48.0775 47.75 47.2475 46.84 46.7325 46.8625 47.77 48.975 50.08 50.9875 51.9725 54.7425 53.9825 54.4725 55.3775 56.1625 56.7725 57.06 57.395 57.5125 57.5825 57.6225
40.3325 46.8725 49.15 49.57 46.76 42.26 39.965 37.0325 27.0925 23.38 21.75 20.485 20.6425 24.1425 18.7525 18.2125 12.6025 9.672501 12.1725 3.5475 1.225 2.5275 2.4525 2.5525 4.5925 3.2825 9.422501 8.5125 16.965 27.035 31.35 33.845 41.875 39.5075 40.0875 42.975 44.96 47.42 49.7475 51.71 53.3275 54.55 55.4525 55.9625 56.1225 55.8725 55.2025 54.09 52.9475 52.18 51.5625 51.02 50.3125 49.7575 49.2525 48.7225 47.98 47.335 46.77 46.28 45.5025 45.0475 44.995 45.2075 46.135 47.505 48.9975 50.1975 51.38 52.225 53.7875 56.36 54.5675 55.095 55.665 56.12 56.565 56.845 57.11 57.255
48.5475 48.7875 49.0825 50.085 49.285 48.785 45.1725 44.175 38.515 35.5875 33.4275 32.5175 32.7525 34.3775 34.76 24.6975 19.035 11.6025 7.42 4.975 1.265 2.06 2.9925 2.5875 5.1125 3.3175 3.4 6.225 10.2025 19.0175 24.4525 26.7625 35.59 35.44 41.03 40.145 43.9475 45.975 48.62 51.01 53.285 54.7125 55.5825 56.09 56.175 55.885 55.325 54.25 53.0075 52.225 51.6025 51.0125 50.3 49.6425 48.9675 48.2375 47.35 46.525 45.745 44.96 43.875 43.27 42.9475 43.4225 44.395 45.7925 47.5025 49.1 50.52 51.35 51.86 56.6125 54.96 55.325 54.59 55.04 55.5575 55.9475 56.355 56.76
51 50.89 51.7325 53.44 51.07 50.5225 49.745 49.4525 45.6675 42.1825 39.4775 37.95 35.95 34.7425 34.2 33.585 29.2775 20.4525 11.5275 5.5075 1.435 1.35 3.2525 3.135 5.925 3.115 3.085 3.115 8.0125 13.9225 22.905 25.6475 32.9975 32.1025 33.55 41.2375 42.855 45.91 47.495 50.5225 53.2625 54.735 55.76 56.2825 56.3175 55.955 55.3875 54.1625 53.13 52.3525 51.6775 50.9625 50.0425 49.2675 48.48 47.6075 46.5825 45.78 44.7575 49.23 44.44 41.2925 42.57 44.73 42.955 44.035 45.53 47.2225 48.7925 49.55 50.2 51.0125 52.0975 52.515 55.2825 57.4225 54.49 54.96 55.5725 56.0325
57.2175 53.31 54.3175 53.92 61.765 60.875 60.5925 52.7325 51.695 49.42 47.34 52.815 49.6525 41.1325 39.625 41.0525 35.475 26.75 18.5675 10.91 5.3525 2.1075 1.5825 4.3175 7.0875 4.6825 3.795 5.115 8.71 10.245 13.5175 19.735 28.6275 32.76 35.195 33.7475 40.63 43.4175 47.7475 50.21 53.1025 54.8475 55.88 56.49 56.27 55.79 55.27 54.1025 53.06 52.325 51.7 50.9075 49.9325 48.9625 48.005 46.96 45.8425 44.8775 43.8075 47.295 40.5575 42.02 43.17 38.065 38.3525 42.485 45.5875 46.1675 47.71 49.805 53.5325 52.85 51.695 53.2725 58.3325 53.2375 51.25 56.2725 57.93 58.565
54.4275 59.4425 61.5875 59.8775 55.0075 54.1525 54.1125 53.76 52.4225 55.665 52.55 52.68 58.225 46.6175 43.7 46.24 37.1375 38.9475 23.18 10.4 5.29 7.1025 1.6525 1.7775 4.49 7.2325 3.88 3.4675 3.5075 10.0325 14.745 14.9125 20.3425 23.665 31.375 32.7975 41.5875 45.2425 48.1925 50.215 52.855 54.3875 55.6325 56.22 55.8425 55.395 54.91 53.9025 52.85 52.165 51.4975 50.75 49.72 48.685 47.665 46.5375 45.3525 44.2875 44.8425 42.985 40.4325 45.325 32.49 33.475 38.5075 40.77 39.0075 43.915 43.925 45.8825 45.7375 47.415 49.32 50.9325 49.6 48.8575 48.8125 50.045 49.93 52.1425
56.21 57.215 56.88 56.48 59.535 56.8225 55.2725 55.02 55.315 59.6675 57.97 54.305 51.9525 56.445 49.8975 48.525 44.1075 34.95 28.905 22.2825 6.555 3.7925 1.815 1.755 2.43 3.8825 4.01 8.505 7.7975 4.1725 4.66 8.8325 15.645 21.6275 20.9425 29.3025 38.97 40.035 45.69 50.3475 52.725 53.4375 54.4625 54.9725 55.06 54.8075 54.31 53.3825 52.3375 51.71 51.2225 50.51 49.4975 48.5025 47.475 46.2675 44.935 43.9225 45.26 44.03 34.3625 36.5775 27.1275 31.2725 35.3175 35.41 36.4525 34.3925 39.0375 40.1325 37.7325 37.0225 39.4725 41.765 42.005 41.6975 43.62 46.995 47.09 47.965
57.8425 64.9975 68.2225 57.6675 66.2575 71.865 71.765 59.345 56.4025 56.5525 56.9275 56.78 63.4525 56.88 54.525 53.4325 50.5975 42.2075 33.53 27.3275 15.4825 7.73 5.7375 1.815 2.7125 2.4575 4.2325 9.502501 3.275 7.1875 3.7475 9.5175 9.6125 14.1675 30.0325 27.35 35.4125 37.5 48.1925 50.94 51.8375 57.1575 53.1875 53.86 54.1775 54.06 53.5275 52.5875 51.62 51.065 50.5775 50.0175 49.175 48.2725 47.2875 46.0925 44.7275 44.3775 47.555 40.185 28.79 26.62 22.2425 25.105 29.1175 34.3275 31.02 26.66 35.975 30.1625 34.3975 30.8825 33.77 38.15 43.0525 36.8075 44.1625 40.8925 39.4075 41.4325
66.215 59.59 59.235 59.035 59.9 65.025 61.3425 59.99 60.5325 62.915 60.015 63.9975 60.5525 62.0525 62.455 53.87 50.3275 43.855 38.72 31 23.65 10.3425 3.225389 1.929012 3.077445 2.870835 6.4775 5.77 3.915 3.6 8.6925 4.015 6.91 8.7925 16.8675 26.475 34.3075 40.795 40.3225 43.7325 51.455 53.1175 54.6325 52.7025 53.0575 52.92 52.28 51.56 50.3825 49.72 49.31 49.0325 48.575 48.0175 47.16 45.7375 48.32 42.6825 41.07 39.785 27.065 22.44 19.315 19.2425 17.2425 18.4425 25.8525 23.565 25.8675 28.7225 31.05 24.74 33.0775 31.555 32.725 33.64 34.4875 35.0825 35.845 37.0775
62.22 62.265 64.9025 61.1425 65.375 61.27 64.905 63.865 61.6075 66.1375 62.24 61.9625 62.785 64.0225 62.38 58.79 50.08 44.8525 38.07 32.2375 23.415 15.86497 7.254451 6.559164 3.440716 2.657757 3.42 2.9375 3.0825 3.23 6.8675 3.725 4.37 7.7125 9.297501 23.3425 29.12 34.71 33.155 39.9125 44.2225 49.6325 51.1425 51.32 56.7125 55.8275 57.67 51.315 49.275 48.1225 47.57 47.455 47.7725 47.775 46.89 48.2275 43.6725 40.4125 37.43 35.6325 26.15 23.485 20.325 19.755 23.7625 15.8425 20.6325 24.985 27.315 22.715 28.4775 26.78 27.5575 29.43 31.2475 32.605 33.62 34.2325 34.7925 35.6075
61.71 60.715 62.3575 62.5325 61.46 65.9475 61.425 61.2325 61.5875 61.62 62.225 62.48 64.44749 61.96 60.955 58.195 54.995 48.7825 42.235 35.705 31.08 18.92699 13.60218 3.14339 3.294002 2.891279 5.1875 3.6025 3.0525 7.0425 8.44 5.2875 9.8275 4.995 14.05 13.4425 18.23 27.505 36.635 39.6225 41.535 45.915 50.1425 52.08 49.715 51.27 49.2525 46.185 50.815 50.4775 49.5975 47.675 46.35 47.065 46.605 46.815 41.18 41.805 40.2775 36.2425 34.8225 24.9075 17.8125 18.5775 17.9525 12.915 22.03 21.8025 25.2775 26.2625 25.5875 27.435 28.79 29.385 29.86 30.6525 32.04 33.21 33.365 35.435
64.6525 61.7775 62.745 61.3875 63.4475 61.5775 61.755 61.9525 62.08 62.5125 63.295 63.5525 63.5275 63.6375 61.2425 59.595 56.275 51.8575 45.09 40.5325 30.235 24.2275 19.10671 3.526944 3.21746 3.69122 3.1725 3.085 3.705 8.3 8.205 5.73 5.0625 4.7 7.845 8.035 13.425 19.515 29.645 33.17 37.7575 40.845 46.66 43.1925 46.235 47.3125 42.78 39.975 48.9025 40.855 44.5875 41.38 50.6075 48.6825 50.6675 44.1525 41.4 36.4075 32.55 30.085 31.9725 26.6425 14.3975 16.485 15.545 15.8175 15.1525 21.0125 20.565 29.5075 32.8 32.9575 34.49 32.0625 29.57 29.4925 30.185 32.615 41.315 32.6775
